963
81.09021416 -41.59414154 1.08495980 -90 30 35 51
81.85471420 -39.68904145 0.91095979 -553 45 56 86
80.97041415 -40.03634146 1.08625980 -558 51 52 65
81.64071419 -39.77454145 1.08605980 -591 38 46 67
80.70781414 -40.66014149 1.00235979 326 37 41 59
81.03701416 -41.45514153 0.88525979 197 42 53 85
80.61831414 -40.43774148 0.88945979 27 34 39 50
80.97671415 -41.31274153 0.99775979 50 34 40 63
82.70311424 -39.26714143 0.85975978 -481 35 26 31
80.87041415 -41.19344152 0.92315979 339 40 52 80
80.87831415 -41.15704152 0.91495979 -533 30 37 55
81.17781416 -39.95414146 0.93635979 806 42 46 58
80.87071415 -41.15994152 1.05565979 -437 28 30 42
81.16181416 -41.91244155 0.93585979 -64 49 57 78
82.44011422 -39.49884144 1.08345980 970 15 14 17
82.48241423 -39.46564144 0.93645979 505 29 37 60
81.22481417 -39.93754146 0.97755979 -418 45 54 87
81.14981416 -41.88354155 0.92635979 49 46 45 59
80.76131414 -40.78604150 0.89235979 -77 37 42 58
80.92301415 -40.05744147 1.00855979 -355 57 69 108
82.74681424 -39.23504143 0.88525979 -561 48 51 66
80.97031415 -41.29884152 1.01395979 154 37 43 63
81.14991416 -41.87064155 1.00745979 -286 31 37 53
80.85971415 -41.16664152 0.85995978 75 35 41 63
80.81711415 -40.91794151 0.88425979 74 35 45 69
81.12501416 -41.68304154 1.03735979 -71 39 44 63
81.08021416 -41.56204154 0.92275979 183 44 55 87
81.17821416 -41.81514155 1.01705979 90 38 43 65
80.74651414 -40.75124150 0.94025979 276 35 43 65
80.76891414 -40.80374150 0.86825979 215 38 44 59
80.45431413 -40.22404147 0.86245978 -194 45 39 47
80.92791415 -40.05364147 0.97115979 948 33 34 47
80.99341415 -41.35384153 0.97825979 81 39 48 73
80.74221414 -40.74244150 0.86225978 69 35 45 68
80.87831415 -41.07334151 0.98465979 241 42 47 60
80.83761415 -40.97104151 0.96025979 189 44 49 70
82.67291423 -39.32244143 0.85355978 -565 22 21 27
80.79001415 -40.85214150 0.93165979 -226 39 47 67
81.90461420 -39.66914145 0.96685979 -466 45 56 88
81.81351419 -39.70374145 0.88475979 423 15 18 28
80.48891413 -40.30334148 1.02885979 203 38 45 61
80.91681415 -40.06114147 1.00395979 -363 78 85 111
80.81181415 -40.09774147 1.08735980 -370 38 41 56
82.70371424 -39.31364143 1.08385980 -378 19 18 23
81.14851416 -41.87024155 1.07585979 -293 32 34 47
80.57361413 -40.16274147 1.05005979 -563 51 53 74
80.60491414 -40.16304147 0.89925979 201 16 18 26
81.12331416 -41.67824154 1.09265980 -172 29 31 41
80.70191414 -40.64704149 0.87145979 -149 39 48 74
80.87781415 -41.21154152 1.05675979 177 41 49 67
81.00971416 -41.39504153 1.08925980 189 27 32 45
80.48461413 -40.29084148 0.92055979 325 44 46 53
80.78721414 -40.11214147 0.94255979 -410 53 66 101
80.87931415 -41.15714152 1.08115980 -492 27 26 32
80.80181415 -40.88274150 1.05615979 31 33 38 53
82.55841423 -39.40324143 1.08395980 -454 19 22 29
82.49811423 -39.44324144 0.93735979 295 31 41 66
80.47611413 -40.27414148 1.02375979 74 43 45 58
81.12721416 -41.67904154 0.88425979 95 41 50 79
81.17071416 -41.84634155 0.85495978 146 11 12 16
81.96181420 -39.64544145 0.96565979 -606 50 59 90
81.15141416 -39.96624146 1.02335979 -210 173 182 214
81.45381418 -39.85014146 0.87175979 -464 45 54 85
81.05981416 -41.51094153 0.94195979 68 42 51 80
82.03011420 -39.61484144 0.88485979 528 15 18 27
81.15991416 -39.96264146 1.05335979 -605 52 61 91
80.72761414 -40.70784150 0.88565979 138 36 44 66
81.92271420 -39.66134145 1.08745980 -519 39 44 64
81.27921417 -39.91584146 1.04445979 -549 39 49 74
81.56991418 -39.80524145 0.89965979 -542 42 53 83
81.31471417 -42.15814157 1.09155980 10 29 32 47
80.92151415 -40.05734147 1.03735979 -256 144 153 189
81.09461416 -39.98814146 0.86515978 805 17 19 32
82.45891422 -39.49234144 1.05465979 -122 29 35 51
81.63841419 -39.77874145 0.86875979 -577 44 53 82
82.47681423 -39.47474144 0.91775979 424 28 36 59
80.74121414 -40.73824150 1.02995979 160 35 42 61
81.01601416 -41.40894153 0.96365979 12 41 52 82
80.49601413 -40.32004148 0.97335979 166 41 47 64
82.18341421 -39.56034144 0.92905979 -650 36 46 73
81.90331420 -39.66914145 0.86495978 -530 40 51 81
80.89911415 -41.26134152 1.09215980 178 35 44 67
80.79321415 -40.10654147 0.91755979 1023 18 20 31
80.47381413 -40.26964148 1.05955979 457 41 45 59
82.69951424 -39.26244143 1.08355980 -270 37 37 47
80.62801414 -40.46314149 0.87805979 -63 38 44 61
82.69951424 -39.26254143 1.05555979 -269 41 39 50
82.52111423 -39.42074144 1.00765979 -391 23 30 49
80.59561414 -40.37454148 0.87155979 -73 38 35 40
81.25541417 -42.00724156 1.04635979 193 133 124 125
81.17311416 -39.95924146 0.85685978 -427 43 52 85
81.04231416 -40.01264146 0.87895979 -492 46 60 92
80.78321414 -40.83474150 1.09145980 97 28 26 32
81.53281418 -39.82054145 0.85445978 -518 43 52 83
82.05241421 -39.60914144 0.99335979 -296 49 56 84
82.09281421 -39.59284144 0.96445979 -537 47 57 84
81.17251416 -41.80084155 1.05925979 -65 36 41 60
81.26221417 -39.92314146 1.00525979 -524 46 55 96
82.65221423 -39.33124143 0.95035979 -600 25 31 43
81.06551416 -40.00184146 0.95935979 -524 141 160 189
82.72251424 -39.30944143 0.90275979 111 24 23 28
81.23281417 -39.93384146 1.06255979 -476 54 66 92
80.84531415 -40.98884151 0.85755978 102 59 59 87
81.29841417 -39.90854146 0.85495978 -523 50 63 95
82.70801424 -39.28114143 0.99065979 77 29 24 28
80.87741415 -41.21144152 1.08585980 54 43 49 68
81.11641416 -41.65954154 1.09185980 -112 27 30 40
81.06551416 -41.52484154 0.90865979 0 44 55 87
82.08021421 -39.59404144 1.02745979 277 13 17 28
82.07241421 -39.60084144 1.06615979 -509 44 50 74
81.17991416 -41.95504156 1.02765979 241 48 54 76
82.58471423 -39.35784143 1.02065979 -630 40 48 67
82.29061422 -39.56254144 1.04705979 320 14 15 22
80.62701414 -40.16724147 1.00585979 323 18 18 24
80.87851415 -41.15704152 1.01875979 -494 27 30 47
81.15451416 -41.75394155 0.98465979 -135 43 48 68
80.89411415 -41.14494152 0.98855979 791 15 14 19
81.02611416 -41.43204153 0.97285979 348 40 51 83
80.99111415 -41.34914153 1.00325979 110 36 46 72
82.04401420 -39.61324144 0.87225979 -553 45 54 85
80.60801414 -40.40414148 0.98155979 29 38 39 49
80.67511414 -40.57834149 1.09305980 116 24 25 33
81.17661416 -39.95544146 1.07975980 -555 42 50 73
81.74691419 -39.73094145 0.88475979 557 15 18 27
81.34541417 -42.24214157 1.08625980 9 36 39 56
82.30871422 -39.55774144 1.08295980 224 13 15 17
80.81521415 -40.96214151 0.98965979 -420 15 14 19
81.38461417 -39.87584146 0.88515979 -583 53 62 91
82.18351421 -39.55674144 0.97465979 272 14 16 25
81.18161416 -39.95584146 0.85725978 -511 44 54 90
82.02211420 -39.62114145 1.08965980 -572 41 46 65
80.79981415 -40.10514147 1.01275979 -386 52 62 97
80.98111415 -40.03294146 1.05375979 -516 54 63 94
82.41781422 -39.51394144 0.86425978 -404 36 46 73
80.62861414 -40.46314149 0.96315979 -84 36 40 58
80.61941414 -40.43784148 0.99055979 165 41 43 58
81.05551416 -40.00524146 0.98375979 -433 61 79 118
80.66971414 -40.56554149 1.07635979 18 31 32 43
82.57281423 -39.36204143 1.00145979 -636 41 49 70
80.46661413 -40.20924147 1.08655980 -618 40 46 60
80.88201415 -41.08214151 0.99325979 130 37 47 67
80.48081413 -40.28244148 0.93625979 235 44 45 55
81.01731416 -41.41544153 1.02195979 77 12 13 18
80.67391414 -40.15544147 0.95995979 -431 51 62 90
81.57251418 -39.80114145 1.08565980 -520 42 47 69
82.33761422 -39.54784144 0.91485979 -526 39 49 74
81.16121416 -41.76844155 0.89125979 148 41 52 82
80.48701413 -40.25964148 0.98275979 -392 16 14 19
80.87471415 -41.06434151 0.95535979 277 43 48 68
80.72871414 -40.71194150 0.95115979 26 32 39 60
80.97191415 -41.30344152 0.88835979 208 39 49 74
80.61851414 -40.43364148 1.04305979 53 34 38 51
82.70621424 -39.25304143 1.04665979 -647 52 56 68
81.22401417 -39.93754146 0.98595979 -355 46 55 84
81.05751416 -41.50614153 0.92915979 240 44 55 85
81.91351420 -39.66534145 1.05145979 -540 48 55 84
82.70701424 -39.31374143 0.89265979 -349 21 22 26
80.85911415 -41.02444151 0.95395979 107 51 44 62
80.92531415 -40.05334147 1.08715980 -528 44 48 63
80.86111415 -41.17104152 1.00115979 8 31 35 53
80.86671415 -41.18464152 1.09305980 305 42 48 66
80.59651414 -40.37474148 0.99665979 -287 39 39 46
82.54211423 -39.41204144 0.97205979 -570 19 25 41
82.25051421 -39.56544144 0.95765979 -221 13 15 23
81.32301417 -42.18224157 1.00975979 33 75 92 135
80.78871415 -40.85194150 0.96035979 58 36 43 64
80.58131414 -40.16074147 0.96995979 283 17 17 24
80.97581415 -40.03674146 0.99535979 -268 161 164 195
80.47681413 -40.27814148 1.08375980 138 40 45 59
82.01161420 -39.62534145 1.01305979 -610 162 163 193
82.74711424 -39.23504143 1.08665980 -561 47 46 54
80.63791414 -40.48854149 0.89905979 232 33 43 66
81.19151416 -41.84864155 0.94545979 156 33 36 55
80.67011414 -40.56964149 0.93825979 -23 36 42 56
82.47181422 -39.47904144 1.02325979 329 31 37 59
80.86511415 -41.03774151 0.89225979 241 42 49 73
80.72531414 -40.72594150 0.87495979 -384 14 15 20
80.50311413 -40.33674148 0.91405979 294 41 43 55
81.07961416 -41.55764154 0.89295979 230 42 56 85
80.87831415 -41.15694152 0.94395979 -376 33 40 56
80.63971414 -40.16044147 0.92955979 -616 50 63 95
81.69731419 -39.75154145 0.86665978 531 14 18 26
80.59391414 -40.37844148 1.08545980 -216 26 26 35
80.47251413 -40.26564148 0.96765979 -66 43 45 57
80.67791414 -40.59104149 0.86565978 103 37 46 70
82.53861423 -39.41194144 1.08265980 -531 20 23 32
82.78851424 -39.21694143 0.85915978 -498 46 52 66
80.59991414 -40.38304148 0.93245979 -49 38 40 53
81.40141417 -39.86824146 1.08675980 -547 37 45 66
81.67441419 -39.76334145 0.95335979 -518 47 54 82
80.70271414 -40.14164147 1.08365980 -429 49 57 82
80.64161414 -40.16064147 1.08325980 -597 44 51 73
81.39431417 -39.87214146 0.88145979 -423 48 57 86
81.68921419 -39.75534145 1.08495980 -553 40 47 66
81.24151417 -39.93014146 1.08845980 -433 40 46 68
82.50411423 -39.43404144 1.08505980 204 32 35 54
81.25971417 -42.01614156 0.87815979 21 36 44 67
82.48171423 -39.46564144 0.98695979 388 28 36 59
80.87871415 -41.15704152 1.08945980 -542 24 25 29
81.75221419 -39.73244145 0.87035979 -373 42 51 80
80.77541414 -40.81704150 1.00005979 2 30 37 52
82.48261423 -39.46554144 0.90885979 487 28 36 59
80.77611414 -40.82124150 0.86065978 177 38 44 60
81.58041418 -39.79784145 0.99095979 715 33 36 50
80.83271415 -40.95794151 1.08385980 -105 27 33 44
81.38451417 -39.87584146 0.94065979 -589 48 57 88
80.80221415 -40.88274150 0.92855979 98 38 45 67
81.03061416 -40.01594146 0.93235979 -477 47 60 95
81.13821416 -39.97354146 0.89275979 -484 48 59 92
81.32181417 -42.17304157 0.88775979 -34 44 51 80
81.70081419 -39.75144145 1.00285979 -556 47 54 82
82.66101423 -39.32694143 1.08585980 -875 29 25 26
81.78711419 -39.71654145 1.06965979 -585 40 48 69
80.89101415 -41.10454152 1.05645979 60 33 39 58
82.56711423 -39.39884143 0.93175979 -8 18 21 36
80.87501415 -41.06444151 1.03825979 124 37 42 64
80.68791414 -40.60854149 1.09015980 11 26 27 36
80.88251415 -41.08224151 1.08885980 26 29 32 45
81.18001416 -41.95504156 1.07065979 10 48 56 79
82.10251421 -39.58864144 1.09055980 -534 39 44 63
80.65991414 -40.15824147 1.08865980 -434 43 48 67
81.80831419 -39.70884145 0.97425979 -462 43 52 81
80.88381415 -41.22524152 0.93675979 13 42 50 77
81.18191416 -41.96004156 0.86045978 -6 46 56 83
81.18001416 -41.95504156 0.89895979 123 46 56 81
80.87711415 -41.21134152 1.01505979 113 46 52 68
81.06601416 -41.53364154 1.04425979 -68 33 41 67
81.03391416 -41.44614153 0.87655979 122 49 58 87
81.50571418 -39.82754145 1.07685979 -558 40 46 70
81.96221420 -39.64524145 0.86795979 -514 48 57 86
81.68141419 -39.75924145 1.04085979 -545 45 52 81
80.60561414 -40.16484147 1.05865979 143 15 15 19
81.02441416 -41.42304153 0.86315978 22 42 55 87
80.64471414 -40.16434147 1.02355979 220 19 18 26
81.03531416 -40.01214146 1.03255979 -98 53 65 98
80.75211414 -40.12554147 0.88335979 -528 50 64 99
81.25461417 -42.00294156 0.86905979 86 51 54 69
81.54141418 -39.81664145 0.90665979 -483 43 53 80
80.52721413 -40.18274147 0.91455979 -379 55 65 93
81.83011419 -39.69604145 0.99125979 616 15 18 26
80.88631415 -41.09114151 0.86065978 260 42 51 82
80.70931414 -40.13794147 0.97075979 584 17 20 30
80.62831414 -40.46314149 1.09265980 -172 24 25 34
80.51841413 -40.18604147 1.07435979 -760 38 29 30
80.79171415 -40.85634150 0.98915979 -93 37 45 62
80.94591415 -40.05084147 0.90675979 -470 53 65 102
82.39861422 -39.52274144 1.00965979 -340 33 43 68
80.87791415 -41.21154152 0.94045979 161 39 51 81
81.17241416 -39.95924146 0.93245979 -464 47 58 86
81.08471416 -41.57574154 1.00345979 57 41 54 86
81.03191416 -41.45004153 1.08745980 4 28 34 50
82.10431421 -39.58874144 0.89775979 -511 44 53 82
81.06521416 -41.52924154 1.00595979 52 42 53 81
80.83291415 -40.95804151 0.94335979 55 43 48 69
81.38141417 -39.87564146 1.08115980 -533 42 48 72
80.69841414 -40.14534147 1.03055979 -420 51 63 92
81.30191417 -42.12384156 0.91645979 139 40 49 78
80.48651413 -40.29894148 1.06075979 497 42 43 52
81.14861416 -41.87874155 0.86195978 -48 39 42 57
80.81231415 -40.10194147 0.97275979 -479 57 67 102
80.47481413 -40.20604147 0.85565978 -325 59 68 101
81.55851418 -39.80884145 0.96815979 -292 48 57 90
81.18461416 -41.82964155 0.87625979 8 35 41 63
81.02421416 -40.01954146 0.87795979 -420 47 58 95
81.04541416 -41.48264153 1.09295980 -46 28 30 46
82.29671422 -39.56004144 1.08535980 -653 32 38 52
80.68561414 -40.60834149 0.92315979 105 34 40 58
80.48261413 -40.29054148 1.08835980 323 45 46 57
81.42871418 -39.85724146 1.08445980 -526 39 45 67
83.04606503 -39.15315867 1.09137887 -646 48 54 80
83.62026506 -38.92555866 1.06847887 -629 52 61 92
83.63226506 -38.92045866 0.86087886 -682 54 67 102
82.82216502 -39.20295867 1.03497887 -645 56 63 91
83.04746503 -39.15315867 1.07717887 -570 51 58 86
82.94966502 -39.19035867 0.93357886 -603 57 67 102
83.30586504 -39.05355866 0.89907886 -521 50 64 103
83.28286504 -39.06315866 0.92727886 -500 52 65 100
83.53026505 -38.96045866 1.01857887 -624 97 110 154
82.98346503 -39.17655867 1.09227887 -643 49 57 80
83.34416504 -39.03425866 1.06667887 -587 52 61 94
83.02956503 -39.16265867 0.99017886 -659 73 82 115
83.73726506 -38.87985866 0.91077886 -630 54 64 99
83.30866504 -39.04875866 1.03047887 -566 59 70 100
83.17916503 -39.13335867 0.86007886 -538 14 20 32
83.59356505 -38.93565866 0.96297886 -551 75 83 122
82.85736502 -39.19895867 1.05127887 -622 51 62 90
83.63446506 -38.92035866 0.95037886 -606 60 69 108
83.14436503 -39.11575867 1.07367887 -558 50 57 86
83.39366504 -39.01115866 1.09117887 48 12 15 22
83.28166504 -39.06325866 0.94157886 -431 50 64 101
82.80036502 -39.21225867 1.06647887 -580 48 45 54
83.49086505 -38.97545866 1.01647887 -468 68 77 108
82.92286502 -39.19475867 0.85637886 -663 56 65 96
83.03046503 -39.16265867 0.86617886 -622 60 69 100
83.42136505 -39.00485866 0.90977886 -493 90 104 139
83.04456503 -39.15795867 0.87647886 -623 55 63 99
83.24026504 -39.08235867 0.88137886 -550 48 58 94
83.45466505 -38.99025866 1.03887887 -645 113 129 165
82.86206502 -39.19885867 1.08457887 -681 49 57 80
82.98946503 -39.17665867 0.90717886 -678 55 66 98
83.05426503 -39.15325867 0.98197886 -575 72 80 116
83.21546504 -39.08715867 1.06847887 -540 48 57 86
83.65816506 -38.91035866 0.86217886 -636 53 66 101
82.84856502 -39.19875867 1.01767887 -555 56 65 96
83.18106503 -39.10625867 0.91697886 -422 52 63 95
83.56756505 -38.94555866 0.97157886 -546 63 75 117
83.17096503 -39.11105867 0.87787886 -539 48 62 91
83.28666504 -39.06315866 0.85447886 -550 50 62 100
82.92536502 -39.19475867 0.88487886 -660 56 66 101
83.11036503 -39.12975867 1.06197887 -560 51 58 87
83.64706506 -38.91545866 1.08997887 -538 51 59 82
83.67336506 -38.90535866 1.09157887 -613 49 56 82
82.95116502 -39.19035867 0.90027886 -679 58 67 100
83.44356505 -38.99515866 0.93057886 -607 53 66 101
83.26006504 -39.07265867 0.92117886 -476 48 61 96
83.53006505 -38.96055866 1.06807887 -661 55 64 93
83.12156503 -39.12985867 0.90907886 -640 55 63 99
83.14866503 -39.11575867 1.03067887 -613 49 62 97
83.63336506 -38.92045866 1.01467887 -581 114 129 172
83.32046504 -39.04395866 1.07477887 -635 53 62 91
83.25446504 -39.07275867 1.02237887 -587 50 63 97
83.04466503 -39.15795867 0.89087886 -593 59 67 103
83.65216506 -38.91125866 1.05007887 518 14 16 27
82.85306502 -39.19885867 0.97547886 -668 57 66 97
82.96326502 -39.18585867 0.86777886 -675 62 68 104
82.81196502 -39.20765867 0.87897886 -553 52 57 77
83.48986505 -38.97555866 0.89347886 -527 83 96 131
83.71326506 -38.89005866 0.99417886 -577 59 73 112
83.10996503 -39.13455867 0.86527886 -628 52 63 95
83.02936503 -39.16255867 0.89487886 -690 56 65 98
83.29796504 -39.05835866 0.85987886 -578 49 64 105
82.94906502 -39.19035867 0.99507886 -669 56 67 97
82.79956502 -39.21225867 0.99577886 -516 49 52 69
83.06776503 -39.14865867 0.99227886 -564 110 120 156
83.14486503 -39.12055867 0.91987886 -559 51 64 96
83.40756505 -39.00985866 0.94827886 -525 54 66 104
82.98556503 -39.17665867 1.07337887 -639 53 60 86
82.95726502 -39.18585867 1.09067887 -667 51 59 82
83.50306505 -38.97035866 0.85497886 -646 87 102 141
83.56836505 -38.94555866 1.05057887 -532 53 63 99
83.48036505 -38.98045866 1.08977887 -588 53 58 87
83.47846505 -38.98045866 0.97157886 -514 93 103 138
83.68736506 -38.90035866 1.09247887 -648 49 56 85
83.24746504 -39.07755867 0.94947886 -503 55 66 98
83.16926503 -39.10615867 1.08487887 -657 47 54 80
82.81126502 -39.20765867 1.08597887 -483 42 40 51
83.38376504 -39.01955866 0.92727886 -543 49 61 99
83.15436503 -39.11575867 0.97337886 -540 150 164 203
83.17566503 -39.10625867 1.00327886 -584 114 128 163
83.58286505 -38.93645866 0.92467886 271 17 19 30
83.45496505 -38.99015866 0.98497886 -481 58 68 104
83.40566505 -39.00985866 1.08997887 -576 52 59 85
83.51576505 -38.96565866 0.94917886 -610 56 69 104
82.79996502 -39.21225867 0.95847886 -587 48 50 63
83.00166503 -39.17195867 0.86007886 -651 59 68 101
83.39356504 -39.01475866 1.02067887 -551 64 73 112
83.17786503 -39.10625867 0.96977886 -494 134 140 176
83.30166504 -39.05355866 0.97657886 -480 94 103 144
83.08996503 -39.13935867 1.00807887 -625 114 119 149
83.35476504 -39.03425866 0.85777886 -515 61 70 111
83.73376506 -38.88405866 1.00787887 318 34 40 54
83.19796504 -39.09665867 1.00927887 -436 89 104 147
83.58156505 -38.94055866 1.02167887 -589 98 112 151
83.50576505 -38.97055866 1.07157887 -657 52 58 92
82.81066502 -39.20765867 0.98247886 -476 51 54 71
83.71406506 -38.89005866 1.04427887 -564 69 83 122
83.64516506 -38.91545866 0.89627886 -700 57 67 103
83.40576505 -39.00995866 1.02137887 -436 75 90 131
83.44336505 -38.99515866 1.08717887 -670 49 56 85
83.03026503 -39.16265867 0.95687886 -601 78 84 120
83.30806504 -39.04875866 1.08877887 -631 48 58 83
83.52936505 -38.96055866 0.94967886 -660 57 67 103
83.43416505 -38.99995866 0.87127886 -524 72 86 123
83.66126506 -38.91035866 1.01117887 -529 121 130 171
82.85006502 -39.19885867 0.89977886 -634 57 65 101
83.37336504 -39.02445866 0.93667886 -585 53 66 100
83.53106505 -38.96055866 1.09277887 -626 50 56 82
83.71326506 -38.88995866 0.95437886 -630 63 71 107
83.68556506 -38.89625866 0.87157886 545 13 17 29
83.55346505 -38.95065866 0.92147886 -501 58 68 104
82.79916502 -39.21225867 0.90207886 -551 50 52 65
83.58046505 -38.94055866 0.85357886 -614 55 66 98
83.52896505 -38.96045866 0.92497886 -649 60 70 106
82.92836502 -39.19475867 0.94177886 -619 56 67 99
83.42316505 -39.00485866 0.86087886 -574 106 122 156
83.56766505 -38.94555866 0.99617886 -577 57 69 109
83.73476506 -38.87985866 0.87577886 -627 59 70 102
83.73676506 -38.87695866 1.08647887 -32 16 14 21
83.39506505 -39.01475866 0.96717886 -505 105 116 148
82.79916502 -39.21225867 0.86917886 -579 53 56 73
83.66136506 -38.91035866 1.05107887 -657 78 91 125
82.81066502 -39.20755867 0.92127886 -597 52 55 74
83.21396504 -39.08715867 1.09257887 -666 46 54 77
83.73926506 -38.87995866 1.08067887 -615 54 60 86
83.02536503 -39.16265867 1.03287887 -575 124 133 164
83.33136504 -39.03905866 1.08527887 -614 50 60 87
83.40566505 -39.00985866 1.04097887 -452 101 115 150
83.39796505 -39.01315866 1.03377887 148 26 29 46
82.80066502 -39.21225867 1.08997887 -550 47 42 48
83.73666506 -38.87685866 0.96127886 369 22 24 32
83.62086506 -38.92555866 1.08347887 -634 54 61 89
82.84706502 -39.19875867 0.86217886 -575 55 66 98
83.17106503 -39.10615867 1.05587887 -526 53 60 89
83.08496503 -39.13935867 1.08927887 -542 45 52 78
83.24946504 -39.07265867 1.08507887 -584 46 58 84
83.32966504 -39.04395866 0.89537886 -528 55 67 107
83.37006504 -39.02445866 1.01437887 -557 92 105 147
83.22606504 -39.08715867 0.94337886 -590 56 65 98
83.25066504 -39.07275867 1.06087887 -611 47 60 92
83.71026506 -38.89005866 0.90937886 -614 57 67 102
83.01826503 -39.16745867 0.94667886 -580 68 80 118
83.08006503 -39.14405867 0.97387886 -504 145 150 188
83.65116506 -38.91015866 0.90727886 162 15 17 28
82.81116502 -39.20765867 1.02467887 -572 54 60 86
83.52896505 -38.96045866 0.85617886 -572 55 64 97
82.97416503 -39.18115867 1.04897887 -627 54 65 95
83.14476503 -39.11575867 1.09297887 -598 48 54 76
83.38826504 -39.01955866 0.87877886 -478 60 68 104
83.21796504 -39.09185867 0.87527886 -611 53 63 98
83.67456506 -38.90525866 0.96247886 -607 107 117 152
83.55446505 -38.95065866 0.86217886 -669 60 70 106
83.56786505 -38.94555866 1.08997887 -595 49 56 84
85.25297091 -38.24274275 1.09067887 -604 54 60 84
85.36887092 -38.19364275 1.09157887 -671 55 59 84
86.43007097 -37.76304273 0.86497886 -720 56 63 89
84.91237090 -38.37054275 1.07137887 -407 58 53 59
84.77597089 -38.45564276 0.87757886 -585 26 30 42
83.81877084 -38.84884278 1.06037887 -518 52 59 87
86.67577098 -37.65664272 1.06247887 -390 25 15 15
87.01637100 -37.54814272 0.86477886 715 27 35 53
87.02707100 -37.52384271 0.90137886 533 14 15 22
84.54657088 -38.60554277 1.09037887 -716 23 14 16
86.31537096 -37.80564273 0.88037886 760 15 17 25
85.92147094 -37.96944274 1.05917887 -183 25 16 23
84.95857090 -38.35824275 0.89117886 -561 19 14 18
85.18457091 -38.26684275 1.09187887 -282 21 13 16
87.00667100 -37.56094272 0.99687886 780 34 41 67
84.15787086 -38.71214277 1.08547887 -578 56 63 92
85.57567093 -38.11124274 1.09207887 -720 53 60 86
84.73497089 -38.50484276 0.91277886 221 38 48 73
86.07557095 -37.90694273 0.98737886 472 18 18 27
84.07517086 -38.74424277 0.91747886 -642 56 67 97
85.22867091 -38.24924275 0.88177886 -510 44 48 73
85.31967092 -38.20884275 1.07457887 -156 25 17 25
86.29307096 -37.81904273 0.88247886 -580 54 64 91
84.35997087 -38.63044277 1.07157887 -531 53 60 86
86.75467098 -37.64194272 0.86387886 3 13 13 16
86.42827097 -37.76314273 0.90587886 -747 55 62 90
85.02557090 -38.30154275 0.94287886 -566 42 48 64
85.09057090 -38.51114276 0.98667886 -910 7 7 7
86.71247098 -37.64904272 1.04847887 -719 43 48 68
86.57677097 -37.69894272 1.08947887 412 21 23 35
86.41907097 -37.76444273 0.95287886 324 13 15 22
86.85227099 -37.59644272 0.88807886 -785 38 44 60
87.03337100 -37.52284271 1.03447887 469 38 46 67
86.16327096 -37.87334273 1.04987887 -601 51 58 84
84.73257089 -38.51034276 0.96037886 317 32 41 70
84.80397089 -38.44924276 0.99057886 -511 27 30 47
84.27907087 -38.66344277 1.03587887 -528 147 148 169
85.09407090 -38.27194275 1.02207887 -526 51 59 80
84.80217089 -38.44034276 0.91117886 311 14 15 22
85.86867094 -37.99424274 0.94407886 -625 59 64 94
85.20247091 -38.26014275 0.98387886 788 15 17 24
83.90767085 -38.81064278 1.08667887 2 23 14 16
85.09667090 -38.52004276 0.96877886 -890 7 7 10
84.97087090 -38.35774275 1.08547887 -258 19 17 18
85.69107093 -38.06594274 1.08717887 -695 53 60 86
84.42047087 -38.60294277 0.86147886 -648 49 54 76
86.16577096 -37.87314273 1.01537887 -675 50 56 82
85.93397094 -37.96784274 1.08907887 -678 50 57 85
86.31067096 -37.80884273 0.99897886 299 13 17 28
85.59267093 -38.10484274 1.09297887 -711 51 58 84
84.69247089 -38.54304276 0.90557886 -467 40 47 73
84.98967090 -38.39614276 1.03797887 -760 11 11 14
85.95557095 -37.95564273 1.00507887 391 20 23 30
85.50737092 -38.13304274 1.07527887 -122 17 12 20
87.18837100 -37.41294271 0.88997886 -567 41 38 45
84.56217088 -38.59704276 0.95597886 93 15 17 29
86.18257096 -37.86654273 0.97017886 -662 47 57 84
86.07497095 -37.90614273 0.93337886 445 14 16 23
85.30217091 -38.21524275 1.00227886 820 19 20 27
84.64057088 -38.56574276 0.87137886 -514 42 54 80
85.47267092 -38.14974274 1.05307887 -671 102 110 133
85.77377094 -38.03324274 1.08037887 -712 57 62 91
86.11177095 -37.89404273 1.09317887 -677 58 63 92
84.28017087 -38.66344277 1.09277887 -495 162 164 185
87.03447100 -37.52254271 0.85937886 526 33 39 56
86.63257098 -37.67824272 1.08597887 -681 55 64 93
85.35207092 -38.19974275 0.87617886 -533 52 60 83
86.95317099 -37.59504272 0.95227886 -597 39 49 74
83.92427085 -38.80464277 1.08687887 60 24 15 21
85.01197090 -38.36344275 0.94757886 -721 9 9 9
83.80497084 -38.85024278 0.96107886 597 17 23 33
85.88737094 -37.98314274 0.93237886 390 16 18 26
83.75247084 -38.87464278 1.05637887 -589 79 89 114
86.31357096 -37.80964273 1.08697887 108 15 18 27
85.31897092 -38.20784275 0.98427886 990 30 32 40
85.44097092 -38.16244274 1.06247887 -573 60 64 91
85.49787092 -38.13744274 0.87697886 -638 55 64 93
85.81807094 -38.01024274 0.89647886 72 16 18 28
85.69607093 -38.05704274 0.85967886 472 20 20 29
85.67547093 -38.07264274 1.09187887 -702 52 56 81
84.97877090 -38.38054275 0.94777886 -734 8 7 13
85.86987094 -37.99414274 1.01767887 -686 90 105 128
86.84757099 -37.63294272 0.95367886 -751 42 52 77
84.18497086 -38.70124277 1.00997887 -557 83 99 148
87.03767100 -37.51574271 0.92607886 576 35 41 55
84.67537088 -38.55414276 1.05777887 -407 36 42 64
86.73227098 -37.64254272 1.04467887 -442 26 17 26
84.64807088 -38.56434276 1.03697887 55 13 14 22
85.44857092 -38.15674274 0.96877886 -656 62 70 106
87.04267100 -37.50964271 0.86577886 514 27 28 41
85.36057092 -38.19394275 1.00857887 -434 53 59 83
85.16647091 -38.27254275 1.00177886 544 13 14 21
86.66467098 -37.66414272 0.91607886 -665 62 64 85
86.89817099 -37.55734272 0.87807886 -788 32 34 46
85.91897094 -37.97424274 0.93497886 -663 57 67 94
85.32057092 -38.20984275 0.91237886 638 15 18 25
87.09557100 -37.45704271 0.89227886 1023 56 64 83
85.51307092 -38.13154274 0.91657886 -684 60 67 96
86.61307098 -37.68574272 0.96697886 -644 61 70 101
85.00787090 -38.30774275 0.87197886 -591 44 51 70
87.01167100 -37.55444272 0.96107886 257 33 44 64
85.86897094 -37.98964274 1.05897887 -86 31 24 31
86.55567097 -37.70564272 0.86317886 425 14 16 23
84.30347087 -38.65244277 0.98547886 -529 63 68 97
86.87727099 -37.62424272 0.99157886 252 12 14 21
84.67537088 -38.55424276 1.08437887 -512 34 41 60
85.27637091 -38.23064275 0.99317886 -545 90 105 134
85.13567091 -38.25904275 0.88297886 -595 52 59 85
83.77967084 -38.86434278 0.96297886 -580 59 68 101
84.65237088 -38.56004276 0.88247886 -407 42 52 79
87.21707101 -37.39844271 1.01297887 -795 42 27 30
86.55607097 -37.70614272 0.95367886 472 13 15 23
86.17927096 -37.86674273 0.87767886 -614 55 62 91
85.21957091 -38.25254275 0.91217886 1023 14 17 24
85.86437094 -37.99734274 1.08367887 -90 15 15 25
86.01217095 -37.93444273 1.08207887 -608 57 61 88
85.32317092 -38.21214275 0.87487886 -535 52 58 84
85.00887090 -38.30764275 0.88807886 -591 45 50 70
86.82647099 -37.59254272 0.88137886 -827 34 32 45
86.29467096 -37.81884273 0.99277886 -679 55 60 89
83.83237084 -38.84384278 1.04097887 -498 53 62 91
84.81287089 -38.41714276 0.85797886 1023 44 56 82
85.64937093 -38.07954274 0.97317886 -673 62 69 98
84.65477088 -38.56534276 1.08837887 -505 36 42 64
84.99967090 -38.31534275 0.98287886 232 12 12 15
87.21797101 -37.39824271 0.90957886 -729 28 17 21
84.52387088 -38.58984276 0.86107886 -448 45 52 78
84.76667089 -38.46134276 1.03657887 -410 32 37 57
84.03797085 -38.76004277 1.08347887 -616 49 58 87
84.95877090 -38.35834275 1.02017887 -315 22 19 26
84.86327089 -38.38874276 0.97777886 -552 55 56 74
85.52277092 -38.12484274 0.94947886 568 17 19 27
85.78097094 -38.02424274 0.90697886 118 22 28 40
83.84497085 -38.83864278 0.95637886 -622 57 68 100
84.59737088 -38.58534276 1.03677887 -199 12 13 20
85.02637090 -38.30154275 1.08857887 -521 51 57 73
84.38407087 -38.61974277 1.00527887 -594 55 64 95
86.48127097 -37.74214272 1.06637887 -600 159 163 190
86.07847095 -37.90764273 1.07987887 -640 56 62 88
84.96227090 -38.35814275 0.94497886 -375 20 18 23
83.95867085 -38.79014277 1.08717887 -206 22 14 22
86.88857099 -37.62404272 0.99127886 -607 44 51 79
84.39487087 -38.61404277 0.95927886 -640 58 65 93
85.20287091 -38.26034275 0.89397886 1023 13 15 22
85.23557091 -38.24404275 0.94827886 1023 13 16 23
86.92677099 -37.60224272 1.00997887 539 13 16 22
85.83617094 -38.00414274 0.93237886 468 14 15 25
85.82247094 -38.01354274 1.06617887 -655 69 81 107
84.44787087 -38.59704276 0.92007886 -630 42 52 77
84.26177086 -38.66884277 0.93177886 -451 54 65 97
85.69737093 -38.06004274 0.89117886 -714 86 92 118
86.99957099 -37.56114272 0.97387886 1023 13 17 26
84.81237089 -38.42774276 1.07107887 890 31 37 61
87.01497100 -37.54814272 1.00327886 291 30 38 59
83.77937084 -38.86434278 1.06807887 -623 54 59 89
84.73637089 -38.50474276 1.00297886 186 34 46 72
86.46227097 -37.74624272 0.97107886 260 15 17 29
85.25287091 -38.23884275 1.03797887 355 14 15 23
85.06867090 -38.28344275 0.97737886 -560 43 48 67
84.53027088 -38.61404277 1.04287887 -174 15 15 27
87.18967100 -37.41274271 0.95717886 -504 48 45 54
84.61847088 -38.57674276 0.87557886 -337 45 52 80
86.29307096 -37.81904273 0.89417886 -667 57 64 93
86.64947098 -37.67094272 0.98037886 -662 65 73 96
86.96227099 -37.58684272 0.91957886 990 13 15 22
85.16527091 -38.25764275 1.06947887 -631 55 62 90
87.10137100 -37.48074271 1.00157886 485 20 26 40
83.95977085 -38.79184277 0.93707886 -603 55 65 100
85.67957093 -38.06494274 0.96767886 301 19 21 31
85.57987093 -38.10554274 0.97517886 -569 119 128 157
85.93827094 -37.96254273 0.89697886 232 14 16 23
83.81237084 -38.84894278 0.87927886 -675 56 66 101
84.62607088 -38.57654276 0.97107886 -548 42 52 79
85.40407092 -38.17234274 0.94847886 534 16 18 25
84.98767090 -38.39334276 1.00177886 -774 9 9 12
84.28327087 -38.66034277 0.86707886 332 13 19 31
86.85697099 -37.58444272 0.88247886 -854 35 35 47
86.95577099 -37.59484272 1.07877887 -544 37 44 63
85.90347094 -37.98204274 1.02487887 289 23 25 37
84.82197089 -38.40644276 0.98247886 871 13 14 22
86.52977097 -37.72084272 0.93357886 -661 55 62 91
84.09127086 -38.73884277 1.09177887 -598 48 58 83
86.48187097 -37.74214272 1.08387887 -600 170 175 197
85.78087094 -38.02374274 0.93587886 55 16 20 31
86.53797097 -37.71344272 0.88087886 352 12 14 24
86.43177097 -37.76294273 1.07527887 -713 62 75 107
86.32717096 -37.80504273 0.98287886 -602 48 53 73
85.96377095 -37.95474273 0.86877886 -585 56 65 98
85.02987090 -38.29624275 1.00047886 975 12 12 19
84.17217086 -38.70664277 1.02977887 -565 53 65 103
85.96437095 -37.95474273 1.08507887 -625 55 60 89
84.17147086 -38.70664277 1.05547887 -679 55 66 98
85.94887095 -37.96124273 1.06717887 -587 65 71 97
84.38787087 -38.61954277 1.07297887 -588 54 60 86
86.80897099 -37.60584272 0.88647886 -820 41 47 63
87.10007100 -37.48084271 1.05587887 567 20 24 36
83.88037085 -38.82324278 0.91797886 -607 52 65 99
83.91647085 -38.80984278 0.92237886 180 16 19 34
86.69067098 -37.65074272 0.87547886 -254 31 33 45
86.44877097 -37.75604272 1.08807887 -707 132 144 170
87.05367100 -37.50314271 0.97497886 -356 30 32 47
87.13777100 -37.42844271 0.93757886 673 14 14 21
85.83527094 -38.00304274 0.87827886 356 16 17 24
85.44427092 -38.16234274 1.09037887 -671 53 59 83
86.31217096 -37.80944273 0.91027886 320 14 18 29
85.67927093 -38.06444274 0.93147886 373 15 17 27
84.22657086 -38.68494277 1.08437887 -319 158 149 170
85.79037094 -38.02694274 1.08697887 -707 52 57 79
85.42157092 -38.16584274 1.05687887 297 19 17 23
85.09637090 -38.26704275 0.87527886 990 15 16 23
84.41267087 -38.60844277 1.02767887 -627 55 63 86
85.01237090 -38.36394275 0.91167886 -702 10 8 12
85.06867090 -38.28354275 1.09107887 -543 55 61 77
84.27797087 -38.66344277 1.02537887 -539 137 137 165
86.92437099 -37.59854272 0.86477886 898 12 12 19
87.00177100 -37.56734272 1.08697887 226 31 37 59
85.59217093 -38.09924274 0.85877886 -697 47 53 75
85.04827090 -38.28884275 1.05427887 403 16 15 18
84.39307087 -38.61414277 0.91747886 -661 55 64 93
87.00247100 -37.56724272 0.86407886 493 26 36 54
84.36327087 -38.62524277 0.85377886 -607 50 55 74
86.17927096 -37.86474273 1.07787887 -293 26 16 17
85.62777093 -38.08434274 0.98567886 610 18 20 27
85.14417091 -38.26994275 1.07297887 -341 20 15 15
85.53577093 -38.12514274 1.05097887 -654 101 109 132
84.86437089 -38.38874276 1.08997887 -643 53 56 71
85.22777091 -38.24924275 0.95827886 -442 54 64 91
86.90197099 -37.61724272 0.95617886 -605 42 52 77
83.87607085 -38.82314278 0.87227886 -673 57 67 103
86.87757099 -37.62454272 1.04587887 -220 25 17 25
86.27777096 -37.82584273 0.95737886 -574 52 61 90
84.90837090 -38.37074275 0.88367886 -577 52 55 70
86.54617097 -37.71394272 0.98737886 -558 58 67 96
86.90227099 -37.61724272 0.92607886 -616 44 51 77
84.78797089 -38.45524276 1.09087887 -541 31 34 49
84.27967087 -38.66344277 1.03077887 -634 133 135 160
85.70597093 -38.05944274 1.04887887 -657 70 79 110
86.23647096 -37.84054273 0.91047886 445 14 18 30
86.24327096 -37.83954273 0.87477886 -693 52 62 89
83.95807085 -38.79184277 0.93197886 -650 53 66 98
86.92727099 -37.60234272 0.91957886 572 14 16 23
86.22737096 -37.84644273 1.05897887 -635 58 63 93
86.26027096 -37.83284273 1.06647887 -635 56 60 87
83.77127084 -38.86314278 0.92537886 344 16 19 28
84.98787090 -38.39344276 1.09177887 -977 20 15 13
86.75547098 -37.64874272 0.97277886 -328 15 18 27
85.21987091 -38.25304275 1.09227887 -203 26 16 18
83.88337085 -38.82314278 0.99857886 -616 53 62 93
87.16797100 -37.42054271 0.87087886 -629 50 54 64
86.56547097 -37.70674272 1.00597887 -642 57 66 97
86.67577098 -37.65674272 0.95427886 546 11 15 23
85.89977094 -37.98094274 0.86597886 -631 59 68 101
86.46427097 -37.74904272 0.91907886 -681 52 62 89
84.62607088 -38.57664276 1.02367887 -522 40 47 75
85.52277092 -38.13104274 1.08347887 -650 51 59 82
86.42447097 -37.76154273 0.88177886 259 14 18 29
85.55327093 -38.11574274 1.02237887 426 25 29 40
86.36197096 -37.79134273 1.02507887 -698 56 63 89
84.13057086 -38.72264277 1.00177886 -645 56 69 101
84.14307086 -38.71744277 0.93617886 -610 59 70 102
83.80667084 -38.85394278 0.99437886 -631 81 86 116
87.10117100 -37.47464271 0.89857886 713 23 27 39
84.42387087 -38.60294277 0.96067886 -626 48 53 82
84.52027088 -38.60884277 0.95637886 -153 15 17 29
86.36317096 -37.79114273 1.07177887 -721 56 62 88
86.13557095 -37.88674273 0.95647886 -611 50 60 87
85.46727092 -38.14994274 0.89227886 -576 56 63 91
85.93287094 -37.96784274 0.85617886 -588 52 62 89
83.77147084 -38.86344278 0.96107886 416 35 38 48
85.01007090 -38.30764275 0.98527886 -524 52 58 80
86.09337095 -37.90054273 0.98777886 663 16 17 24
84.27687087 -38.65504277 0.85547886 -249 12 14 20
86.67447098 -37.65514272 0.89977886 606 14 16 24
83.94877085 -38.79714277 1.03767887 -556 52 61 90
87.17017100 -37.42044271 1.06567887 -459 45 40 46
87.09447100 -37.45704271 0.96507886 351 49 55 69
86.10897095 -37.89054273 0.86127886 293 16 18 26
85.18547091 -38.26804275 0.87617886 1023 15 15 23
85.14387091 -38.26944275 1.09107887 -394 22 17 16
86.67627098 -37.65734272 1.02657887 68 16 16 22
86.27907096 -37.82574273 0.94567886 -637 53 60 88
87.11237100 -37.44314271 1.08697887 -534 47 49 61
83.78057084 -38.86424278 1.01807887 -606 112 125 157
85.18427091 -38.26664275 1.05547887 -19 19 15 19
83.88427085 -38.82314278 0.96837886 -638 56 64 100
84.03557085 -38.76034277 0.93567886 -593 57 64 90
85.16597091 -38.27214275 0.85797886 399 15 15 22
85.18497091 -38.26764275 0.96577886 642 13 16 23
84.73077089 -38.51034276 0.87547886 381 36 44 67
84.52557088 -38.61124277 0.98527886 -215 15 18 27
86.18007096 -37.86674273 0.92967886 -658 58 67 98
83.93767085 -38.80214277 1.00157886 -583 54 63 94
85.09517090 -38.27194275 1.06547887 -597 45 50 72
84.73077089 -38.51544276 1.07177887 702 33 41 64
85.00097090 -38.34024275 0.89317886 -317 21 16 20
85.81767094 -38.00894274 0.93617886 161 16 20 32
84.86587089 -38.38354275 1.04517887 305 22 21 27
87.10117100 -37.48084271 0.86827886 721 20 23 36
86.07487095 -37.90544273 0.87907886 557 14 16 23
84.48387088 -38.59614276 1.07857887 -648 39 44 64
86.09617095 -37.90074273 1.08087887 -691 55 61 87
85.57497093 -38.10324274 0.87717886 503 16 17 25
86.23117096 -37.83814273 1.08597887 297 16 16 28
84.15547086 -38.71204277 0.89067886 -592 56 65 96
84.12667086 -38.72064277 0.87317886 270 15 16 28
84.81817089 -38.40624276 0.90087886 -271 53 63 88
84.99977090 -38.41104276 1.05617887 -885 9 9 12
85.69197093 -38.06574274 1.07057887 -591 105 117 141
83.81247084 -38.84894278 0.88437886 -630 57 65 101
86.65267098 -37.67064272 1.01597887 -639 64 69 98
84.39057087 -38.61414277 0.85517886 -575 37 32 39
86.87427099 -37.61984272 0.86477886 857 11 11 18
83.92427085 -38.80724277 1.02097887 -652 50 61 91
86.50427097 -37.72864272 0.93497886 504 13 14 22
84.73767089 -38.49924276 0.88107886 453 32 42 69
85.54337093 -38.11884274 0.90677886 -708 50 56 80
84.66237088 -38.55294276 0.92917886 -244 15 16 21
85.48407092 -38.14364274 1.02047887 -585 119 126 152
87.07827100 -37.49504271 0.99437886 -565 25 31 45
86.12927095 -37.88724273 1.08837887 -596 55 62 90
85.54187093 -38.11884274 0.86777886 -688 57 64 92
86.89147099 -37.62394272 1.07527887 -585 38 46 67
84.02377085 -38.76544277 0.92007886 -673 55 64 93
84.90697090 -38.36804275 0.98267886 494 15 16 23
85.20207091 -38.25944275 1.03797887 524 14 13 19
85.03717090 -38.29574275 0.92187886 -537 45 51 65
86.39767097 -37.77674273 1.08527887 -655 56 60 85
84.96867090 -38.36514275 1.04637887 -2 11 10 15
84.16867086 -38.70674277 0.86037886 -562 57 65 101
86.64467098 -37.67124272 0.86777886 -678 47 53 69
86.07847095 -37.90764273 1.08557887 -635 57 63 89
85.31937092 -38.20804275 0.96667886 631 32 34 40
86.11687095 -37.89354273 0.92687886 -645 52 59 87
85.06867090 -38.47924276 1.05807887 -963 9 9 9
84.99217090 -38.33004275 1.09207887 -480 31 30 36
83.98777085 -38.78124277 0.98917886 -565 56 67 97
84.65087088 -38.56544276 0.98787886 -402 44 52 75
85.68807093 -38.06614274 1.01977887 -693 112 119 148
84.17257086 -38.70664277 1.08647887 -593 56 67 99
85.43467092 -38.16284274 0.99017886 -573 76 84 107
86.19257096 -37.86014273 0.85517886 -616 59 66 94
86.70747098 -37.64954272 0.90017886 -812 43 51 74
86.23017096 -37.84634273 1.01277887 -677 52 61 90
86.06927095 -37.91384273 0.93057886 -632 57 62 92
86.59777098 -37.69274272 1.05447887 -678 59 68 97
86.42967097 -37.76304273 0.92337886 -602 54 61 87
83.76547084 -38.86934278 1.09227887 -631 51 59 82
85.07987090 -38.27504275 0.92867886 705 12 14 20
86.97387099 -37.52094271 0.87527886 -620 39 36 43
84.65047088 -38.56544276 0.98267886 -448 40 48 69
86.82317099 -37.64234272 1.08177887 -447 28 17 17
85.69807093 -38.06004274 0.93617886 -682 70 76 108
86.49887097 -37.73484272 0.86177886 -570 56 62 94
85.98607095 -37.94734273 0.92117886 -718 57 62 91
85.30337091 -38.21724275 1.09187887 -379 26 16 18
86.19607096 -37.85694273 1.02397887 334 13 14 21
86.21227096 -37.85314273 0.88507886 -675 59 65 97
84.02627085 -38.76544277 1.07757887 -587 53 58 88
85.00747090 -38.35734275 1.07337887 -820 17 13 10
86.65157098 -37.67074272 1.04547887 -644 62 68 92
84.26727087 -38.66884277 1.08667887 -648 173 178 210
84.25027086 -38.67434277 0.95177886 -547 56 67 99
84.81177089 -38.41724276 0.94847886 1023 42 53 81
86.42997097 -37.76304273 0.98177886 -693 53 60 86
86.07517095 -37.90654273 0.89717886 419 14 15 25
85.06507090 -38.28364275 0.86897886 -516 54 61 80
85.13997091 -38.26404275 0.96547886 338 12 13 19
87.01077100 -37.55464272 1.08767887 589 31 39 58
84.29397087 -38.65774277 1.08837887 -440 149 138 152
85.38257092 -38.18724275 1.08687887 -657 51 59 82
86.32787096 -37.80494273 1.06407887 -661 51 57 83
86.18357096 -37.86644273 0.98737886 -622 52 59 85
84.11677086 -38.72804277 0.93987886 -665 56 67 99
84.77177089 -38.45824276 1.01837887 539 14 16 23
86.19417096 -37.86014273 1.08597887 -607 55 62 88
85.43897092 -38.16104274 0.96267886 256 24 26 38
84.32987087 -38.64144277 0.98177886 -558 58 69 99
84.34687087 -38.63604277 1.09137887 -538 52 58 82
86.55657097 -37.70744272 1.06177887 160 38 29 31
84.83377089 -38.40004276 1.01607887 407 17 20 27
84.94167090 -38.35664275 1.07267887 -41 22 18 19
84.25247086 -38.67444277 1.03937887 -347 170 174 199
87.18967100 -37.41274271 1.06057887 -537 47 38 41
85.00107090 -38.31674275 0.87507886 -303 12 12 13
86.61357098 -37.68574272 0.98457886 -706 57 66 97
87.08697100 -37.48224271 0.97407886 587 12 12 20
85.13457091 -38.25904275 0.94267886 -521 48 58 85
85.57567093 -38.10424274 0.98507886 648 28 29 38
84.40087087 -38.61394277 1.08437887 -660 51 59 80
85.04487090 -38.44494276 1.09297887 -1015 20 14 13
85.95567095 -37.95584273 0.96907886 449 15 16 27
87.03527100 -37.51604271 1.08907887 265 29 36 52
85.81737094 -38.01384274 0.86827886 -627 57 66 99
85.81777094 -38.00974274 0.87787886 330 13 17 25
83.90127085 -38.81284278 0.85847886 -616 55 66 98
84.56187088 -38.59694276 1.07247887 134 15 15 23
84.16087086 -38.70664277 0.96247886 -35 14 14 23
84.03727085 -38.76034277 1.00207886 -615 54 64 99
85.10217090 -38.52814276 0.86077886 -910 8 6 6
86.36317096 -37.79114273 1.08927887 -693 61 65 90
85.43577092 -38.16274274 0.89627886 -637 55 63 86
84.14267086 -38.71744277 0.86457886 -609 57 68 100
86.61007098 -37.68594272 0.87827886 -615 51 63 89
85.11497091 -38.26014275 0.85727886 665 14 14 22
84.07677086 -38.74194277 1.01597887 55 13 14 25
84.97377090 -38.37324275 0.91167886 -715 9 8 15
84.67147088 -38.55434276 0.99947886 -480 41 49 70
84.56957088 -38.58854276 0.91027886 -641 44 54 81
85.96707095 -37.95454273 1.03397887 -619 71 82 114
84.81857089 -38.40614276 1.08757887 -442 51 56 76
84.96137090 -38.36194275 0.87197886 224 10 11 16
84.56507088 -38.59834277 0.98567886 217 17 20 29
84.81957089 -38.40614276 1.06617887 -426 55 57 72
83.79157084 -38.85934278 1.08367887 -653 49 59 84
83.92317085 -38.80334277 0.96157886 632 14 16 28
87.05757100 -37.49034271 0.88467886 -654 26 28 41
84.32887087 -38.64144277 0.96627886 -536 55 66 98
84.71317089 -38.53194276 0.86947886 -234 36 42 66
87.18967100 -37.41284271 1.09117887 -537 42 31 35
86.86287099 -37.63034272 0.91447886 398 14 17 26
84.21487086 -38.69044277 1.04257887 -508 161 166 195
86.17907096 -37.86684273 1.09107887 -690 55 62 90
86.53367097 -37.72064272 1.09257887 -585 124 126 141
85.18497091 -38.26774275 1.00207886 838 14 14 22
85.93817094 -37.96264273 0.96877886 515 17 20 28
86.00257095 -37.94064273 0.93897886 -746 56 61 90
85.81957094 -38.01384274 0.98687886 -676 95 102 130
84.65917088 -38.55994276 0.94617886 -462 39 49 74
85.67117093 -38.07284274 1.05247887 -683 61 65 92
84.48257088 -38.59624276 1.08387887 -705 39 44 64
86.02887095 -37.92784273 1.07717887 -692 58 63 92
83.98707085 -38.78124277 0.97387886 -503 54 63 94
84.77027089 -38.45614276 0.89277886 683 13 15 23
85.16577091 -38.27174275 0.91187886 648 14 14 21
85.32117092 -38.21224275 0.89117886 -552 54 61 87
84.99817090 -38.33514275 1.00627887 -435 24 22 27
85.30377091 -38.21844275 0.96737886 -496 95 99 128
84.70987089 -38.53734276 0.98567886 -364 36 42 68
85.76947094 -38.03344274 0.96767886 -727 55 62 90
84.34117087 -38.63604277 0.90977886 -549 51 64 98
83.87147085 -38.82824278 0.99787886 -632 57 66 99
86.43117097 -37.76294273 1.08697887 -675 62 71 110
87.18887100 -37.41284271 0.99347886 -527 46 44 49
86.97197099 -37.58734272 1.09157887 -555 33 40 58
84.19727086 -38.69594277 0.97477886 -569 57 66 99
84.01497085 -38.75944277 0.89417886 264 17 21 33
84.88027089 -38.38294275 1.09087887 -692 52 55 64
85.40387092 -38.17204274 1.00277886 580 16 16 25
85.29367091 -38.22394275 1.04917887 524 18 21 30
85.66697093 -38.07314274 0.99617886 -683 67 74 103
85.46737092 -38.14994274 0.99737886 -591 71 77 111
85.75197094 -38.04024274 0.89927886 -772 52 59 85
84.46617087 -38.59664276 1.02017887 -689 44 51 77
86.95957099 -37.58324272 0.86507886 819 12 12 20
86.52977097 -37.72094272 0.89257886 -629 55 64 97
84.76057089 -38.46694276 1.08947887 -23 34 39 58
87.13107100 -37.43574271 1.08807887 -384 48 51 66
85.09027090 -38.51094276 0.89647886 -850 7 7 9
84.44197087 -38.59724276 0.87297886 -705 45 52 78
86.14547095 -37.88024273 0.87057886 -634 57 64 92
84.77167089 -38.45794276 0.94687886 578 15 16 24
85.56147093 -38.11204274 0.96317886 -617 61 70 101
84.32667087 -38.64154277 0.89887886 -579 54 65 95
86.04257095 -37.92104273 0.95127886 504 14 15 25
86.46417097 -37.74904272 0.98927886 -714 51 56 85
85.81987094 -38.00994274 1.02417887 77 22 25 34
86.68497098 -37.65714272 1.02367887 -681 44 49 71
87.02417100 -37.53524271 1.03987887 549 33 41 62
86.16507096 -37.87314273 0.90027886 -692 54 63 92
84.72517089 -38.52634276 1.08207887 619 34 40 64
86.29537096 -37.81874273 1.08577887 -704 57 62 91
84.81857089 -38.40624276 0.85807886 -177 57 64 90
87.09387100 -37.46294271 1.09207887 1023 33 37 48
84.47377087 -38.59644276 1.08857887 -695 40 45 64
87.00607100 -37.56104272 1.07527887 353 31 37 59
84.10407086 -38.73344277 1.03117887 -585 58 65 93
85.44067092 -38.16244274 0.85777886 -636 48 56 79
85.25617091 -38.24244275 0.86107886 -377 49 55 79
86.92737099 -37.60314272 1.06437887 -186 26 16 18
85.57547093 -38.10384274 0.89527886 385 17 17 26
84.28487087 -38.66064277 0.98287886 700 44 47 62
84.07597086 -38.74424277 0.85617886 -608 59 65 101
84.42827087 -38.60294277 1.09117887 -578 39 44 63
86.52817097 -37.72094272 0.91007886 -624 55 64 95
85.77347094 -38.03324274 1.09177887 -685 48 54 78
86.69167098 -37.65264272 0.94267886 266 17 19 31
87.17347100 -37.41564271 1.01017887 372 14 13 19
86.38457097 -37.77624273 1.02837887 68 13 16 25
84.24787086 -38.67454277 0.86927886 -605 52 63 95
85.09587090 -38.27184275 1.09277887 -596 49 56 75
85.88887094 -37.98734274 1.09247887 -732 50 56 82
86.41797097 -37.76324273 1.07967887 -444 19 12 19
83.85677085 -38.83334278 1.09277887 -554 51 58 84
86.82847099 -37.63434272 0.85707886 -741 41 47 69
86.00737095 -37.93314273 0.87927886 364 14 16 24
86.49897097 -37.73494272 1.02027887 -504 148 149 177
85.97997095 -37.94774273 1.09177887 -643 55 62 90
86.98267099 -37.58084272 0.90557886 -443 33 40 66
84.94247090 -38.35814275 0.87477886 625 14 16 22
83.92397085 -38.80724277 1.05127887 -566 52 61 90
83.86567085 -38.82834278 0.91207886 -664 53 66 100
87.05607100 -37.49994271 1.04607887 78 23 14 21
85.81827094 -38.01024274 1.07687887 -198 24 14 19
86.94177099 -37.55984272 0.88577886 -656 32 35 50
84.73117089 -38.51034276 0.89137886 413 33 43 70
86.82557099 -37.64664272 1.09117887 206 13 16 25
85.42127092 -38.16544274 0.93077886 507 14 15 23
86.06177095 -37.91424273 1.09047887 -734 57 64 90
85.75487094 -38.04004274 1.02867887 -665 56 62 88
84.73337089 -38.51034276 1.00277886 313 35 42 70
85.72357093 -38.05324274 1.08907887 -635 54 60 86
85.93687094 -37.96764274 0.99827886 -588 59 65 91
86.61037098 -37.68584272 0.88417886 -602 61 68 96
86.43017097 -37.76304273 1.02867887 -736 59 72 106
85.57817093 -38.10564274 0.95297886 -719 65 72 101
84.30637087 -38.65244277 1.03747887 -501 70 71 102
85.16277091 -38.25784275 1.09087887 -642 46 52 74
84.45487087 -38.59684276 0.97277886 -607 43 50 79
86.29547096 -37.81874273 1.07387887 -696 52 59 85
84.19497086 -38.69374277 0.89107886 76 15 17 26
84.41427087 -38.60834277 1.06947887 -566 54 60 84
87.20077100 -37.38764271 1.06457887 -301 55 50 54
84.56507088 -38.58874276 0.87317886 -645 47 54 83
87.03837100 -37.51584271 0.93827886 567 37 40 55
86.73907098 -37.64154272 0.88387886 -308 16 16 26
86.76707098 -37.65374272 1.09107887 -307 12 15 24
87.12117100 -37.43644271 0.88297886 591 16 18 23
84.92447090 -38.36474275 0.86287886 -592 23 22 28
84.61047088 -38.58224276 0.91747886 -486 45 52 80
85.34667092 -38.20014275 0.96947886 -516 82 89 115
84.59697088 -38.58774276 1.08507887 -562 39 46 65
87.11057100 -37.44334271 0.98367886 -581 54 58 70
84.53337088 -38.61534277 1.01437887 -236 16 19 28
84.00807085 -38.76754277 1.08737887 -166 22 14 22
87.21657101 -37.39844271 1.09247887 -823 45 29 30
86.75917098 -37.64854272 1.00857887 -275 13 13 21
84.73127089 -38.51544276 1.08767887 694 35 43 64
85.01377090 -38.36604275 0.87577886 -727 10 8 10
84.72857089 -38.52084276 1.09277887 396 30 36 58
85.34977092 -38.19994275 1.03557887 -462 49 50 71
84.19607086 -38.69604277 0.86707886 -643 53 66 100
